-66.612500	-119.830500	118.511535
-53.299000	-119.830500	118.502863
-53.299000	-106.521000	118.466447
-66.612500	-106.521000	118.475278
53.209000	119.740500	118.521737
-39.985500	-119.830500	118.506121
-39.985500	-106.521000	118.468600
66.522500	119.740500	118.545320
39.895500	106.431000	118.522667
-26.672000	-119.830500	118.509017
-26.672000	-106.521000	118.471858
26.582000	119.740500	118.547785
26.582000	106.431000	118.533363
-13.358500	-119.830500	118.511493
-13.358500	-106.521000	118.475115
13.268500	106.431000	118.544059
-0.045000	106.431000	118.562688
-0.045000	-119.830500	118.513969
-0.045000	-106.521000	118.477741
-13.358500	106.431000	118.579042
-53.299000	119.740500	118.637648
13.268500	-119.830500	118.516446
13.268500	-106.521000	118.477234
-39.985500	119.740500	118.639272
66.522500	106.431000	118.539422
26.582000	-119.830500	118.518922
26.582000	-106.521000	118.462657
79.836000	106.431000	118.564109
53.209000	93.121500	118.508839
39.895500	-119.830500	118.512907
39.895500	-106.521000	118.448080
53.209000	106.431000	118.514736
39.895500	93.121500	118.512901
53.209000	-119.830500	118.498330
53.209000	-106.521000	118.433465
26.582000	93.121500	118.523597
-66.612500	106.431000	118.599923
66.522500	-119.830500	118.424663
66.522500	-106.521000	118.406667
-26.672000	106.431000	118.577417
-79.926000	-106.521000	118.484110
39.895500	119.740500	118.532433
-66.612500	-93.211500	118.439022
-79.926000	-93.211500	118.447854
-39.985500	93.121500	118.512312
66.522500	93.121500	118.533525
-53.299000	-93.211500	118.430191
-53.299000	93.121500	118.516174
13.268500	93.121500	118.524991
-79.926000	106.431000	118.586761
-39.985500	-93.211500	118.431080
79.836000	79.812000	118.552314
-26.672000	119.740500	118.629823
-0.045000	119.740500	118.588804
-26.672000	-93.211500	118.434337
53.209000	79.812000	118.506428
13.268500	119.740500	118.568295
26.582000	79.812000	118.477260
-13.358500	-93.211500	118.426909
-66.612500	119.740500	118.644773
-13.358500	119.740500	118.609314
-39.985500	106.431000	118.575792
-0.045000	-93.211500	118.432253
-13.358500	79.812000	118.399651
-53.299000	106.431000	118.576213
79.836000	93.121500	118.558212
13.268500	-93.211500	118.426628
-26.672000	79.812000	118.394106
-79.926000	93.121500	118.541911
-93.239500	93.121500	118.528749
26.582000	-93.211500	118.397829
-66.612500	93.121500	118.543495
79.836000	66.502500	118.553521
-0.045000	79.812000	118.431889
39.895500	-93.211500	118.383252
66.522500	79.812000	118.528061
-26.672000	93.121500	118.513937
-0.045000	93.121500	118.509685
53.209000	-93.211500	118.368576
39.895500	66.502500	118.469246
-13.358500	93.121500	118.501307
66.522500	66.502500	118.531889
66.522500	-93.211500	118.353464
-0.045000	66.502500	118.369355
13.268500	79.812000	118.464127
79.836000	-106.521000	118.267273
79.836000	-93.211500	118.249277
-39.985500	66.502500	118.323213
-93.239500	-93.211500	118.456685
-66.612500	66.502500	118.418141
-79.926000	-79.902000	118.411597
-93.239500	-79.902000	118.420429
-53.299000	79.812000	118.450853
26.582000	66.502500	118.434066
-66.612500	-79.902000	118.403463
-106.553000	79.812000	118.470737
79.836000	53.193000	118.557350
-66.612500	79.812000	118.483457
-53.299000	-79.902000	118.401185
-39.985500	79.812000	118.407895
66.522500	53.193000	118.532972
-53.299000	66.502500	118.370677
-39.985500	-79.902000	118.362315
39.895500	53.193000	118.466649
39.895500	79.812000	118.476549
-13.358500	66.502500	118.336999
-26.672000	-79.902000	118.353695
-0.045000	53.193000	118.365459
-79.926000	79.812000	118.497061
13.268500	66.502500	118.401711
-13.358500	-79.902000	118.357022
-39.985500	53.193000	118.311756
-26.672000	66.502500	118.304643
26.582000	53.193000	118.431223
-0.045000	-79.902000	118.377992
-79.926000	53.193000	118.385430
-93.239500	79.812000	118.483899
-93.239500	66.502500	118.439049
13.268500	-79.902000	118.398962
13.268500	53.193000	118.397815
-79.926000	66.502500	118.450740
53.209000	53.193000	118.502047
26.582000	-79.902000	118.390071
39.895500	39.883500	118.464024
66.522500	39.883500	118.534055
53.209000	66.502500	118.504629
39.895500	-79.902000	118.359805
-0.045000	39.883500	118.361564
-13.358500	53.193000	118.333104
-119.866500	66.502500	118.412725
53.209000	-79.902000	118.312793
-39.985500	39.883500	118.321431
-106.553000	66.502500	118.425887
-26.672000	53.193000	118.311616
66.522500	-79.902000	118.288576
13.268500	39.883500	118.393920
-79.926000	39.883500	118.364425
-66.612500	53.193000	118.354605
79.836000	-79.902000	118.231282
-106.553000	39.883500	118.369727
-106.553000	53.193000	118.381037
-13.358500	39.883500	118.329208
-106.553000	-79.902000	118.429260
79.836000	26.574000	118.534791
-93.239500	-66.592500	118.389974
-106.553000	-66.592500	118.393004
39.895500	26.574000	118.461399
53.209000	39.883500	118.499450
-79.926000	-66.592500	118.388919
-26.672000	39.883500	118.321290
-93.239500	53.193000	118.394199
26.582000	39.883500	118.428598
-66.612500	-66.592500	118.386643
-26.672000	26.574000	118.330965
-66.612500	39.883500	118.338414
-119.866500	53.193000	118.368448
-53.299000	-66.592500	118.370384
-66.612500	26.574000	118.330793
-53.299000	39.883500	118.321572
-53.299000	53.193000	118.328446
-39.985500	-66.592500	118.323300
-93.239500	39.883500	118.379133
-53.299000	26.574000	118.331246
66.522500	26.574000	118.532809
-26.672000	-66.592500	118.293590
66.522500	13.264500	118.537418
26.582000	26.574000	118.425973
-39.985500	26.574000	118.331106
-13.358500	-66.592500	118.314469
26.582000	13.264500	118.423348
-13.358500	13.264500	118.340499
-119.866500	39.883500	118.360320
-0.045000	-66.592500	118.335348
-79.926000	26.574000	118.347136
79.836000	39.883500	118.555465
-66.612500	13.264500	118.330784
13.268500	-66.592500	118.356228
-0.045000	26.574000	118.357668
-119.866500	26.574000	118.357125
13.268500	26.574000	118.390547
26.582000	-66.592500	118.377107
53.209000	13.264500	118.498990
-106.553000	13.264500	118.353471
79.836000	13.264500	118.524773
39.895500	-66.592500	118.332437
-119.866500	13.264500	118.359560
53.209000	26.574000	118.496825
13.268500	13.264500	118.387922
53.209000	-66.592500	118.282610
39.895500	13.264500	118.460561
-106.553000	26.574000	118.361599
-13.358500	26.574000	118.330824
66.522500	-66.592500	118.232782
13.268500	-0.045000	118.388314
66.522500	-0.045000	118.542026
-0.045000	13.264500	118.353773
79.836000	-66.592500	118.208575
-26.672000	-0.045000	118.342302
-66.612500	-0.045000	118.330775
-79.926000	13.264500	118.336903
-119.866500	-66.592500	118.401836
-93.239500	26.574000	118.371005
-106.553000	-53.283000	118.375430
-119.866500	-53.283000	118.376918
-53.299000	13.264500	118.334626
-0.045000	-0.045000	118.349963
-93.239500	-53.283000	118.374374
-106.553000	-0.045000	118.353962
66.522500	-13.354500	118.546635
39.895500	-0.045000	118.465170
-79.926000	-53.283000	118.372100
26.582000	-0.045000	118.426742
-26.672000	13.264500	118.340640
-93.239500	13.264500	118.354641
-66.612500	-53.283000	118.366262
26.582000	-13.354500	118.428158
53.209000	-0.045000	118.503598
-53.299000	-0.045000	118.334617
-53.299000	-53.283000	118.336275
-13.358500	-13.354500	118.339125
-13.358500	-0.045000	118.346145
-39.985500	-0.045000	118.338460
-39.985500	-53.283000	118.305457
-53.299000	-13.354500	118.334608
-39.985500	13.264500	118.338469
79.836000	-13.354500	118.534093
-26.672000	-53.283000	118.304304
-93.239500	-13.354500	118.350986
79.836000	-0.045000	118.529433
-93.239500	-0.045000	118.345596
-13.358500	-53.283000	118.317383
53.209000	-13.354500	118.508207
-79.926000	-0.045000	118.336924
79.836000	-26.664000	118.452191
-0.045000	-53.283000	118.338262
13.268500	-13.354500	118.382338
13.268500	-26.664000	118.369055
39.895500	-13.354500	118.469779
13.268500	-53.283000	118.359142
-26.672000	-13.354500	118.340278
-26.672000	-26.664000	118.328287
53.209000	-26.664000	118.506516
26.582000	-53.283000	118.388309
-66.612500	-13.354500	118.330766
-79.926000	-13.354500	118.336945
-39.985500	-13.354500	118.338450
39.895500	-53.283000	118.434130
-106.553000	-13.354500	118.357005
-0.045000	-26.664000	118.344091
39.895500	-26.664000	118.460695
53.209000	-53.283000	118.374890
79.836000	-39.973500	118.310012
-66.612500	-26.664000	118.330756
26.582000	-26.664000	118.414875
66.522500	-53.283000	118.255790
39.895500	-39.973500	118.447413
-0.045000	-13.354500	118.347005
-106.553000	-26.664000	118.362914
79.836000	-53.283000	118.152772
-0.045000	-39.973500	118.341177
-13.358500	-26.664000	118.327134
-39.985500	-39.973500	118.317448
-39.985500	-26.664000	118.329440
-119.866500	-0.045000	118.361995
-106.553000	-39.973500	118.368823
-119.866500	-39.973500	118.371009
66.522500	-26.664000	118.551244
-79.926000	-26.664000	118.342966
-93.239500	-39.973500	118.366638
-53.299000	-39.973500	118.318601
-119.866500	-26.664000	118.366866
-53.299000	-26.664000	118.330593
-79.926000	-39.973500	118.353172
53.209000	-39.973500	118.493233
26.582000	-39.973500	118.401592
-93.239500	-26.664000	118.360729
-66.612500	-39.973500	118.345882
-13.358500	-39.973500	118.320297
13.268500	-39.973500	118.362056
66.522500	-39.973500	118.433550
-26.672000	-39.973500	118.316295
-119.866500	-13.354500	118.364431
